   0.450    0.370    0.400     0.57
   0.560    0.550    0.550     0.08
   0.310    0.430    0.480     0.67
   0.700    0.620    0.680     0.67
   0.140    0.380    0.430     0.64
   0.690    0.720    0.720     0.70
   0.680    0.090    0.260     0.52
   0.680    0.710    0.710     0.72
   0.700    0.700    0.180     0.39
   0.610    0.650    0.700     0.72
   0.600    0.690    0.650    -0.01
   0.190    0.440    0.640     0.67
   0.710    0.720    0.710     0.72
   0.710    0.630    0.680     0.04
   0.340    0.600    0.640     0.69
   0.720    0.680    0.700     0.73
   0.690    0.730    0.760    -0.24
   0.100    0.310    0.610     0.66
   0.710    0.730    0.670     0.68
   0.680    0.700    0.680     0.72
  -0.320    0.060    0.250     0.62
   0.660    0.710    0.730     0.65
   0.690    0.740    0.650     0.66
   0.720   -0.620    0.180     0.61
   0.650    0.670    0.710     0.73
   0.720    0.690    0.680     0.74
   0.740   -0.620    0.510     0.61
   0.700    0.730    0.740     0.75
   0.740    0.630    0.660     0.57
   0.690    0.710    0.740     0.75
   0.740    0.750    0.730     0.60
  -0.850    0.600    0.700     0.74
   0.740    0.730    0.740     0.75
   0.730    0.710    0.590     0.61
   0.680    0.850    0.690     0.73
   0.730    0.730    0.730     0.74
   0.720    0.710   -0.780     0.58
   0.620    0.650    0.850     0.72
   0.730    0.730    0.730     0.73
   0.730    0.730    0.710     0.57
   0.580    0.660    0.710     0.73
   0.730    0.740    0.740     0.74
   0.710    0.700   -0.760     0.54
   0.660    0.710    0.730     0.73
   0.740    0.740    0.740     0.72
   0.700    0.430    0.480     0.69
   0.710    0.720    0.730     0.73
   0.740    0.730    0.720     0.71
  -0.080    0.240    0.520     0.33
   0.690    0.720    0.730     0.73
   0.720    0.730    0.730     0.72
   0.720   -0.720    0.030     0.25
   0.520   -0.330   -0.620     0.70
   0.720    0.730    0.740     0.74
   0.750    0.740    0.720     0.72
  -0.260    0.030    0.240     0.42
  -0.410   -0.660   -0.610     0.69
   0.720    0.730    0.740     0.74
   0.740    0.740    0.730     0.72
  -0.240    0.150    0.480    -0.63
  -0.360   -0.640   -0.590     0.70
   0.720    0.730    0.740     0.74
   0.730    0.740    0.730     0.72
  -0.480   -0.170    0.130     0.47
  -0.650   -0.400   -0.510    -0.51
   0.710    0.730    0.740     0.74
   0.740    0.730    0.730     0.72
   0.720   -0.620   -0.160     0.12
   0.480   -0.430   -0.360    -0.37
   0.470    0.710    0.730     0.75
   0.740    0.730    0.730     0.73
   0.720    0.710   -0.470    -0.13
   0.200    0.490    0.540     0.57
   0.600    0.620    0.620     0.71
   0.740    0.750    0.730     0.73
   0.750    0.740    0.720     0.71
  -0.380   -0.070    0.240     0.49
   0.550    0.540    0.560     0.61
   0.650    0.700    0.730     0.74
   0.730    0.740    0.750     0.75
   0.730    0.720   -0.420    -0.06
   0.260    0.490   -0.340     0.67
   0.700    0.730    0.750     0.73
   0.730    0.740    0.740     0.72
   0.710   -0.410   -0.070     0.31
   0.470    0.310    0.690     0.72
   0.740    0.750    0.740     0.73
   0.730    0.730    0.720     0.71
  -0.350   -0.080    0.330     0.46
   0.690    0.720    0.730     0.74
   0.730    0.740    0.740     0.74
   0.710    0.710   -0.370    -0.01
   0.300    0.500    0.700     0.72
   0.730    0.740    0.740     0.75
   0.750    0.720    0.720     0.71
  -0.380   -0.010    0.260     0.50
   0.580    0.620    0.690     0.71
   0.730    0.740    0.740     0.75
   0.750    0.730    0.720     0.72
  -0.430   -0.020    0.210     0.50
  -0.740    0.610    0.690     0.70
   0.730    0.750    0.740     0.73
   0.730    0.730    0.720     0.72
  -0.440   -0.020    0.190     0.50
  -0.760   -0.760    0.590     0.68
   0.700    0.720    0.740     0.75
   0.750    0.730    0.750     0.73
   0.730   -0.500   -0.080     0.14
   0.490    0.440    0.500     0.59
   0.640    0.680    0.700     0.72
   0.740    0.750    0.750     0.75
   0.740    0.720    0.720    -0.56
  -0.100    0.100    0.470     0.48
   0.500    0.540    0.630     0.69
   0.700    0.730    0.740     0.75
   0.770    0.690    0.670     0.67
  -0.660   -0.150    0.110     0.47
   0.520    0.500    0.650     0.68
   0.690    0.720    0.740     0.75
   0.700    0.700    0.710     0.73
   0.600   -0.650   -0.220     0.06
   0.280    0.530    0.650     0.67
   0.690    0.720    0.750     0.71
   0.720    0.700    0.720     0.64
   0.730    0.520    0.560     0.62
   0.650    0.670    0.690     0.72
   0.760    0.700    0.730     0.70
   0.700    0.710    0.660     0.49
   0.570    0.610    0.640     0.67
   0.690    0.720    0.750     0.70
   0.720    0.710    0.700     0.70
   0.740   -0.630    0.480     0.55
   0.590    0.630    0.660     0.69
   0.710    0.740    0.740     0.71
   0.720    0.740    0.720     0.72
  -0.680    0.550    0.560     0.54
   0.600    0.630    0.650     0.68
   0.710    0.730    0.740     0.70
   0.680    0.700    0.710     0.65
   0.680    0.540    0.590     0.63
   0.650    0.680    0.710     0.72
   0.730    0.740    0.700     0.69
   0.670    0.520    0.570     0.62
   0.640    0.670    0.690     0.71
   0.710    0.730    0.720     0.72
   0.720    0.510    0.400     0.62
   0.610    0.650    0.680     0.69
   0.700    0.710    0.710     0.70
   0.380    0.390    0.480     0.47
   0.560    0.690    0.690     0.69
   0.680    0.670    0.300     0.37
   0.380    0.340    0.430     0.54
   0.610    0.640    0.640     0.65
  -0.420   -0.080    0.250     0.50
   0.510    0.520   -0.450    -0.37
  -0.400   -0.570   -0.560    -0.55
  -0.550   -0.080   -0.310    -0.43
  -0.480   -0.670   -0.700    -0.62
  -0.680   -0.670   -0.140    -0.38
  -0.430   -0.640   -0.690    -0.72
  -0.720   -0.700   -0.680    -0.09
  -0.260   -0.520   -0.680    -0.71
  -0.710   -0.720   -0.700    -0.70
  -0.180   -0.390   -0.610    -0.65
  -0.700   -0.720   -0.600    -0.69
  -0.650    0.010   -0.190    -0.44
  -0.640   -0.670   -0.710    -0.72
  -0.710   -0.720   -0.710    -0.63
  -0.680   -0.040   -0.340    -0.60
  -0.640   -0.690   -0.720    -0.68
  -0.700   -0.730   -0.690    -0.73
  -0.760    0.240   -0.100    -0.31
  -0.610   -0.660   -0.710    -0.73
  -0.670   -0.680   -0.680    -0.70
  -0.680   -0.720    0.320    -0.06
  -0.250   -0.620   -0.660    -0.71
  -0.730   -0.650   -0.690    -0.74
  -0.650   -0.660   -0.720     0.62
  -0.180   -0.610   -0.650    -0.67
  -0.710   -0.730   -0.720    -0.69
  -0.680   -0.740   -0.740     0.62
  -0.510   -0.610   -0.700    -0.73
  -0.740   -0.750   -0.740    -0.63
  -0.660   -0.570   -0.690    -0.71
  -0.740   -0.750   -0.740    -0.75
  -0.730   -0.600    0.850    -0.60
  -0.700   -0.740   -0.740    -0.73
  -0.740   -0.750   -0.730    -0.71
  -0.590   -0.610   -0.680    -0.85
  -0.690   -0.730   -0.730    -0.73
  -0.730   -0.740   -0.720    -0.71
   0.780   -0.580   -0.620    -0.65
  -0.850   -0.720   -0.730    -0.73
  -0.730   -0.730   -0.730    -0.73
  -0.710   -0.570   -0.580    -0.66
  -0.710   -0.730   -0.730    -0.74
  -0.740   -0.740   -0.710    -0.70
   0.760   -0.540   -0.660    -0.71
  -0.730   -0.730   -0.740    -0.74
  -0.740   -0.720   -0.700    -0.43
  -0.480   -0.690   -0.710    -0.72
  -0.730   -0.730   -0.740    -0.73
  -0.720   -0.710    0.080    -0.24
  -0.520   -0.330   -0.690    -0.72
  -0.730   -0.730   -0.720    -0.73
  -0.730   -0.720   -0.720     0.72
  -0.030   -0.250   -0.520     0.33
   0.620   -0.700   -0.720    -0.73
  -0.740   -0.740   -0.750    -0.74
  -0.720   -0.720    0.260    -0.03
  -0.240   -0.420    0.410     0.66
   0.610   -0.690   -0.720    -0.73
  -0.740   -0.740   -0.740    -0.74
  -0.730   -0.720    0.240    -0.15
  -0.480    0.630    0.360     0.64
   0.590   -0.700   -0.720    -0.73
  -0.740   -0.740   -0.730    -0.74
  -0.730   -0.720    0.480     0.17
  -0.130   -0.470    0.650     0.40
   0.510    0.510   -0.710    -0.73
  -0.740   -0.740   -0.740    -0.73
  -0.730   -0.720   -0.720     0.62
   0.160   -0.120   -0.480     0.43
   0.360    0.370   -0.470    -0.71
  -0.730   -0.750   -0.740    -0.73
  -0.730   -0.730   -0.720    -0.71
   0.470    0.130   -0.200    -0.49
  -0.540   -0.570   -0.600    -0.62
  -0.620   -0.710   -0.740    -0.75
  -0.730   -0.730   -0.750    -0.74
  -0.720   -0.710    0.380     0.07
  -0.240   -0.490   -0.550    -0.54
  -0.560   -0.610   -0.650    -0.70
  -0.730   -0.740   -0.730    -0.74
  -0.750   -0.750   -0.730    -0.72
   0.420    0.060   -0.260    -0.49
   0.340   -0.670   -0.700    -0.73
  -0.750   -0.730   -0.730    -0.74
  -0.740   -0.720   -0.710     0.41
   0.070   -0.310   -0.470    -0.31
  -0.690   -0.720   -0.740    -0.75
  -0.740   -0.730   -0.730    -0.73
  -0.720   -0.710    0.350     0.08
  -0.330   -0.460   -0.690    -0.72
  -0.730   -0.740   -0.730    -0.74
  -0.740   -0.740   -0.710    -0.71
   0.370    0.010   -0.300    -0.50
  -0.700   -0.720   -0.730    -0.74
  -0.740   -0.750   -0.750    -0.72
  -0.720   -0.710    0.380     0.01
  -0.260   -0.500   -0.580    -0.62
  -0.690   -0.710   -0.730    -0.74
  -0.740   -0.750   -0.750    -0.73
  -0.720   -0.720    0.430     0.02
  -0.210   -0.500    0.740    -0.61
  -0.690   -0.700   -0.730    -0.75
  -0.740   -0.730   -0.730    -0.73
  -0.720   -0.720    0.440     0.02
  -0.190   -0.500    0.760     0.76
  -0.590   -0.680   -0.700    -0.72
  -0.740   -0.750   -0.750    -0.73
  -0.750   -0.730   -0.730     0.50
   0.080   -0.140   -0.490    -0.44
  -0.500   -0.590   -0.640    -0.68
  -0.700   -0.720   -0.740    -0.75
  -0.750   -0.750   -0.740    -0.72
  -0.720    0.560    0.100    -0.10
  -0.470   -0.480   -0.500    -0.54
  -0.630   -0.690   -0.700    -0.73
  -0.740   -0.750   -0.770    -0.69
  -0.670   -0.670    0.660     0.15
  -0.110   -0.470   -0.520    -0.50
  -0.650   -0.680   -0.690    -0.72
  -0.740   -0.750   -0.700    -0.70
  -0.710   -0.730   -0.600     0.65
   0.220   -0.060   -0.280    -0.53
  -0.650   -0.670   -0.690    -0.72
  -0.750   -0.710   -0.720    -0.70
  -0.720   -0.640   -0.730    -0.52
  -0.560   -0.620   -0.650    -0.67
  -0.690   -0.720   -0.760    -0.70
  -0.730   -0.700   -0.700    -0.71
  -0.660   -0.490   -0.570    -0.61
  -0.640   -0.670   -0.690    -0.72
  -0.750   -0.700   -0.720    -0.71
  -0.700   -0.700   -0.740     0.63
  -0.480   -0.550   -0.590    -0.63
  -0.660   -0.690   -0.710    -0.74
  -0.740   -0.710   -0.720    -0.74
  -0.720   -0.720    0.680    -0.55
  -0.560   -0.540   -0.600    -0.63
  -0.650   -0.680   -0.710    -0.73
  -0.740   -0.700   -0.680    -0.70
  -0.710   -0.650   -0.680    -0.54
  -0.590   -0.630   -0.650    -0.68
  -0.710   -0.720   -0.730    -0.74
  -0.700   -0.690   -0.670    -0.52
  -0.570   -0.620   -0.640    -0.67
  -0.690   -0.710   -0.710    -0.73
  -0.720   -0.720   -0.720    -0.51
  -0.400   -0.620   -0.610    -0.65
  -0.680   -0.690   -0.700    -0.71
  -0.710   -0.700   -0.380    -0.39
  -0.480   -0.470   -0.560    -0.69
  -0.690   -0.690   -0.680    -0.67
  -0.300   -0.370   -0.380    -0.34
  -0.430   -0.540   -0.610    -0.64
  -0.640   -0.650    0.420     0.08
  -0.250   -0.500   -0.510    -0.52
  -2.155   -2.045   -2.045    -2.00
  -2.015   -2.025   -2.035    -2.03
  -1.965   -1.925   -1.935    -1.90
  -1.885   -1.905   -1.905    -1.93
  -1.905   -1.855   -1.835    -1.79
  -1.785   -1.785   -1.785    -1.81
  -1.825   -1.825   -1.785    -1.72
  -1.685   -1.685   -1.695    -1.70
  -1.715   -1.725   -1.695    -1.65
  -1.605   -1.585   -1.595    -1.60
  -1.625   -1.615   -1.635    -1.64
  -1.595   -1.535   -1.495    -1.49
  -1.495   -1.505   -1.515    -1.50
  -1.525   -1.555   -1.545    -1.53
  -1.465   -1.405   -1.405    -1.39
  -1.395   -1.415   -1.425    -1.42
  -1.435   -1.435   -1.435    -1.50
  -1.405   -1.375   -1.315    -1.31
  -1.305   -1.305   -1.325    -1.33
  -1.335   -1.345   -1.355    -1.36
  -1.415   -1.335   -1.295    -1.22
  -1.215   -1.215   -1.215    -1.25
  -1.235   -1.225   -1.265    -1.28
  -1.265   -1.375   -1.205    -1.12
  -1.125   -1.125   -1.105    -1.12
  -1.135   -1.145   -1.145    -1.15
  -1.155   -1.285   -1.045    -1.03
  -1.025   -1.025   -1.035    -1.04
  -1.045   -1.085   -1.085    -0.93
  -0.925   -0.935   -0.925    -0.94
  -0.955   -0.955   -0.955    -1.00
  -1.125   -0.835   -0.845    -0.85
  -0.855   -0.855   -0.865    -0.87
  -0.875   -0.885   -0.745    -0.75
  -0.745   -0.715   -0.755    -0.75
  -0.755   -0.765   -0.775    -0.78
  -0.785   -0.795   -0.895    -0.66
  -0.655   -0.655   -0.625    -0.66
  -0.655   -0.665   -0.675    -0.69
  -0.675   -0.695   -0.705    -0.57
  -0.565   -0.575   -0.575    -0.57
  -0.575   -0.585   -0.595    -0.60
  -0.605   -0.625   -0.705    -0.48
  -0.485   -0.485   -0.475    -0.49
  -0.495   -0.505   -0.495    -0.52
  -0.535   -0.405   -0.405    -0.40
  -0.395   -0.395   -0.405    -0.41
  -0.415   -0.415   -0.435    -0.45
  -0.395   -0.325   -0.295    -0.33
  -0.295   -0.305   -0.305    -0.32
  -0.325   -0.325   -0.325    -0.35
  -0.345   -0.395   -0.275    -0.24
  -0.205   -0.355   -0.415    -0.21
  -0.215   -0.215   -0.225    -0.23
  -0.235   -0.235   -0.255    -0.25
  -0.225   -0.185   -0.145    -0.12
  -0.275   -0.315   -0.315    -0.12
  -0.125   -0.125   -0.135    -0.15
  -0.145   -0.145   -0.165    -0.18
  -0.125   -0.075   -0.015    -0.21
  -0.175   -0.215   -0.215    -0.04
  -0.035   -0.035   -0.045    -0.06
  -0.065   -0.055   -0.075    -0.08
  -0.055   -0.025    0.015     0.06
  -0.115   -0.085   -0.105    -0.12
   0.055    0.045    0.055     0.04
   0.035    0.025    0.025     0.02
   0.015    0.015    0.075     0.10
   0.155    0.005    0.015     0.02
   0.115    0.145    0.145     0.14
   0.125    0.115    0.115     0.12
   0.115    0.105    0.135     0.16
   0.205    0.245    0.245     0.23
   0.235    0.235    0.225     0.23
   0.225    0.235    0.225     0.21
   0.205    0.205    0.195     0.18
   0.245    0.265    0.305     0.33
   0.335    0.315    0.315     0.32
   0.325    0.315    0.325     0.31
   0.315    0.305    0.295     0.29
   0.285    0.275    0.335     0.36
   0.385    0.425    0.315     0.41
   0.405    0.405    0.415     0.39
   0.395    0.385    0.385     0.37
   0.365    0.425    0.455     0.49
   0.515    0.475    0.495     0.49
   0.495    0.505    0.485     0.47
   0.475    0.475    0.465     0.45
   0.525    0.535    0.575     0.60
   0.585    0.585    0.585     0.58
   0.575    0.565    0.565     0.56
   0.545    0.545    0.615     0.63
   0.665    0.695    0.675     0.66
   0.665    0.675    0.665     0.65
   0.645    0.645    0.635     0.62
   0.715    0.725    0.755     0.77
   0.765    0.775    0.765     0.75
   0.755    0.755    0.745     0.74
   0.735    0.735    0.725     0.71
   0.795    0.825    0.835     0.86
   0.745    0.855    0.855     0.84
   0.845    0.845    0.835     0.82
   0.815    0.825    0.815     0.80
   0.885    0.915    0.925     0.95
   0.845    0.835    0.935     0.93
   0.935    0.925    0.935     0.92
   0.915    0.905    0.915     0.89
   0.895    0.975    1.005     1.00
   1.045    1.025    1.025     1.02
   1.035    1.025    1.025     1.01
   1.015    1.005    1.005     0.99
   0.995    0.995    0.975     1.06
   1.095    1.095    1.125     1.12
   1.115    1.115    1.125     1.11
   1.105    1.105    1.105     1.09
   1.095    1.075    1.075     1.06
   1.165    1.185    1.185     1.21
   1.205    1.205    1.215     1.19
   1.195    1.195    1.195     1.18
   1.175    1.165    1.175     1.15
   1.145    1.255    1.265     1.27
   1.295    1.295    1.295     1.28
   1.275    1.285    1.275     1.27
   1.265    1.255    1.265     1.24
   1.245    1.385    1.375     1.37
   1.385    1.375    1.365     1.36
   1.365    1.355    1.355     1.34
   1.345    1.335    1.335     1.46
   1.465    1.455    1.475     1.46
   1.455    1.455    1.455     1.44
   1.435    1.435    1.435     1.42
   1.425    1.525    1.555     1.54
   1.555    1.555    1.545     1.53
   1.535    1.545    1.535     1.52
   1.515    1.525    1.515     1.50
   1.625    1.665    1.645     1.64
   1.645    1.645    1.635     1.63
   1.625    1.625    1.625     1.60
   1.605    1.605    1.595     1.59
   1.755    1.725    1.725     1.72
   1.715    1.715    1.705     1.71
   1.705    1.705    1.685     1.70
   1.825    1.815    1.805     1.82
   1.805    1.805    1.805     1.79
   1.785    1.785    1.775     1.78
   1.775    1.895    1.905     1.90
   1.895    1.885    1.885     1.89
   1.885    1.865    1.865     1.87
   1.985    1.995    1.985     1.97
   1.975    1.975    1.965     1.96
   1.955    1.955    2.075     2.07
   2.065    2.065    2.065     2.06
   2.055    2.055    2.045     2.04
   2.155    2.155    2.145     2.15
   2.135    2.135   -2.155    -2.04
  -2.045   -2.005   -2.015    -2.03
  -2.035   -2.025   -1.965    -1.93
  -1.935   -1.895   -1.885    -1.91
  -1.905   -1.925   -1.905    -1.86
  -1.835   -1.795   -1.785    -1.79
  -1.785   -1.805   -1.825    -1.83
  -1.785   -1.715   -1.685    -1.69
  -1.695   -1.695   -1.715    -1.73
  -1.695   -1.645   -1.605    -1.58
  -1.595   -1.595   -1.625    -1.62
  -1.635   -1.635   -1.595    -1.54
  -1.495   -1.485   -1.495    -1.50
  -1.515   -1.505   -1.525    -1.56
  -1.545   -1.525   -1.465    -1.41
  -1.405   -1.385   -1.395    -1.42
  -1.425   -1.415   -1.435    -1.44
  -1.435   -1.495   -1.405    -1.38
  -1.315   -1.305   -1.305    -1.31
  -1.325   -1.335   -1.335    -1.35
  -1.355   -1.355   -1.415    -1.33
  -1.295   -1.215   -1.215    -1.22
  -1.215   -1.245   -1.235    -1.23
  -1.265   -1.275   -1.265    -1.38
  -1.205   -1.125   -1.125    -1.12
  -1.105   -1.125   -1.135    -1.15
  -1.145   -1.145   -1.155    -1.29
  -1.045   -1.025   -1.025    -1.03
  -1.035   -1.035   -1.045    -1.08
  -1.085   -0.925   -0.925    -0.94
  -0.925   -0.935   -0.955    -0.96
  -0.955   -1.005   -1.125    -0.83
  -0.845   -0.845   -0.855    -0.86
  -0.865   -0.865   -0.875    -0.89
  -0.745   -0.745   -0.745    -0.72
  -0.755   -0.745   -0.755    -0.77
  -0.775   -0.775   -0.785    -0.79
  -0.895   -0.655   -0.655    -0.66
  -0.625   -0.655   -0.655    -0.67
  -0.675   -0.685   -0.675    -0.70
  -0.705   -0.565   -0.565    -0.58
  -0.575   -0.565   -0.575    -0.58
  -0.595   -0.595   -0.605    -0.62
  -0.705   -0.475   -0.485    -0.49
  -0.475   -0.485   -0.495    -0.50
  -0.495   -0.515   -0.535    -0.41
  -0.405   -0.395   -0.395    -0.40
  -0.405   -0.405   -0.415    -0.42
  -0.435   -0.445   -0.395    -0.33
  -0.295   -0.335   -0.295    -0.31
  -0.305   -0.315   -0.325    -0.33
  -0.325   -0.345   -0.345    -0.40
  -0.275   -0.235   -0.205    -0.36
  -0.415   -0.205   -0.215    -0.22
  -0.225   -0.225   -0.235    -0.24
  -0.255   -0.255   -0.225    -0.19
  -0.145   -0.125   -0.275    -0.32
  -0.315   -0.125   -0.125    -0.12
  -0.135   -0.145   -0.145    -0.15
  -0.165   -0.175   -0.125    -0.08
  -0.015   -0.205   -0.175    -0.22
  -0.215   -0.035   -0.035    -0.04
  -0.045   -0.055   -0.065    -0.06
  -0.075   -0.085   -0.055    -0.03
   0.015    0.065   -0.115    -0.08
  -0.105   -0.115    0.055     0.04
   0.055    0.045    0.035     0.02
   0.025    0.025    0.015     0.01
   0.075    0.105    0.155     0.00
   0.015    0.025    0.115     0.14
   0.145    0.145    0.125     0.11
   0.115    0.125    0.115     0.10
   0.135    0.165    0.205     0.24
   0.245    0.235    0.235     0.23
   0.225    0.235    0.225     0.23
   0.225    0.215    0.205     0.20
   0.195    0.185    0.245     0.26
   0.305    0.335    0.335     0.31
   0.315    0.325    0.325     0.31
   0.325    0.315    0.315     0.30
   0.295    0.295    0.285     0.27
   0.335    0.365    0.385     0.42
   0.315    0.415    0.405     0.40
   0.415    0.395    0.395     0.38
   0.385    0.375    0.365     0.42
   0.455    0.495    0.515     0.47
   0.495    0.495    0.495     0.50
   0.485    0.475    0.475     0.47
   0.465    0.455    0.525     0.53
   0.575    0.605    0.585     0.58
   0.585    0.585    0.575     0.56
   0.565    0.565    0.545     0.54
   0.615    0.635    0.665     0.69
   0.675    0.665    0.665     0.67
   0.665    0.655    0.645     0.64
   0.635    0.625    0.715     0.72
   0.755    0.775    0.765     0.77
   0.765    0.755    0.755     0.75
   0.745    0.745    0.735     0.73
   0.725    0.715    0.795     0.82
   0.835    0.865    0.745     0.85
   0.855    0.845    0.845     0.84
   0.835    0.825    0.815     0.82
   0.815    0.805    0.885     0.91
   0.925    0.955    0.845     0.83
   0.935    0.935    0.935     0.92
   0.935    0.925    0.915     0.90
   0.915    0.895    0.895     0.97
   1.005    1.005    1.045     1.02
   1.025    1.025    1.035     1.02
   1.025    1.015    1.015     1.00
   1.005    0.995    0.995     0.99
   0.975    1.065    1.095     1.09
   1.125    1.125    1.115     1.11
   1.125    1.115    1.105     1.10
   1.105    1.095    1.095     1.07
   1.075    1.065    1.165     1.18
   1.185    1.215    1.205     1.20
   1.215    1.195    1.195     1.19
   1.195    1.185    1.175     1.16
   1.175    1.155    1.145     1.25
   1.265    1.275    1.295     1.29
   1.295    1.285    1.275     1.28
   1.275    1.275    1.265     1.25
   1.265    1.245    1.245     1.38
   1.375    1.375    1.385     1.37
   1.365    1.365    1.365     1.35
   1.355    1.345    1.345     1.33
   1.335    1.465    1.465     1.45
   1.475    1.465    1.455     1.45
   1.455    1.445    1.435     1.43
   1.435    1.425    1.425     1.52
   1.555    1.545    1.555     1.55
   1.545    1.535    1.535     1.54
   1.535    1.525    1.515     1.52
   1.515    1.505    1.625     1.66
   1.645    1.645    1.645     1.64
   1.635    1.635    1.625     1.62
   1.625    1.605    1.605     1.60
   1.595    1.595    1.755     1.72
   1.725    1.725    1.715     1.71
   1.705    1.715    1.705     1.70
   1.685    1.705    1.825     1.81
   1.805    1.825    1.805     1.80
   1.805    1.795    1.785     1.78
   1.775    1.785    1.775     1.89
   1.905    1.905    1.895     1.88
   1.885    1.895    1.885     1.86
   1.865    1.875    1.985     1.99
   1.985    1.975    1.975     1.97
   1.965    1.965    1.955     1.95
   2.075    2.075    2.065     2.06
   2.065    2.065    2.055     2.05
   2.045    2.045    2.155     2.15
   2.145    2.155    2.135     2.13
   0.310    0.570    0.490     0.44
   0.340    0.240    0.150     0.68
   0.650    0.580    0.510     0.47
   0.380    0.270    0.190     0.09
   0.700    0.670    0.580     0.56
   0.480    0.390    0.290     0.20
   0.100    0.780    0.730     0.71
   0.570    0.480    0.390     0.29
   0.200    0.100    0.800     0.76
   0.730    0.640    0.570     0.48
   0.350    0.280    0.180     0.84
   0.800    0.780    0.740     0.65
   0.570    0.480    0.380     0.29
   0.200    0.080    0.000     0.85
   0.840    0.820    0.740     0.65
   0.580    0.470    0.380     0.30
   0.190    0.110    0.030     0.88
   0.870    0.830    0.820     0.74
   0.660    0.580    0.460     0.37
   0.280    0.190    0.090     0.01
   0.860    0.850    0.810     0.82
   0.740    0.660    0.580     0.46
   0.380    0.300    0.180     0.08
   0.020    0.880    0.880     0.90
   0.830    0.740    0.660     0.57
   0.480    0.380    0.280     0.20
   0.110    0.880    1.070     0.90
   0.750    0.660    0.570     0.48
   0.390    0.170    0.080     0.98
   0.920    0.750    0.660     0.58
   0.480    0.390    0.290     0.16
   0.910    0.990    0.750     0.66
   0.570    0.480    0.390     0.30
   0.200    0.100    1.080     0.99
   0.920    0.870    0.740     0.66
   0.570    0.480    0.380     0.29
   0.190    0.100    1.020     1.07
   0.990    0.910    0.870     0.75
   0.650    0.560    0.480     0.38
   0.290    0.190    0.100     1.16
   1.070    0.820    0.740     0.65
   0.560    0.470    0.380     0.29
   0.190    0.090    1.130     1.15
   0.810    0.740    0.650     0.56
   0.470    0.380    0.290     0.19
   0.090    1.210    1.130     0.82
   0.740    0.650    0.560     0.47
   0.380    0.280    0.190     0.09
   1.280    1.250    1.230     1.09
   0.820    0.740    0.640     0.56
   0.460    0.370    0.280     0.19
   0.090    1.230    1.300     1.25
   1.220    0.930    0.550     0.82
   0.740    0.640    0.560     0.47
   0.370    0.280    0.190     0.09
   1.320    1.290    1.240     1.20
   0.810    0.640    0.550     0.82
   0.730    0.640    0.560     0.46
   0.370    0.280    0.180     0.09
   1.320    1.320    1.300     0.85
   0.820    0.640    0.550     0.81
   0.730    0.640    0.550     0.46
   0.370    0.280    0.180     0.09
   1.360    1.340    1.310     1.30
   0.840    0.800    0.670     0.57
   0.810    0.730    0.640     0.55
   0.460    0.370    0.270     0.18
   0.090    1.330    1.340     1.30
   1.290    0.890    0.810     0.70
   0.840    0.810    0.730     0.64
   0.550    0.450    0.360     0.27
   0.180    0.080    1.360     1.34
   1.320    1.290    1.220     1.13
   1.050    0.960    0.870     0.81
   0.730    0.640    0.540     0.45
   0.360    0.270    0.180     0.08
   1.370    1.350    1.330     1.29
   1.220    1.130    1.040     0.96
   0.880    0.810    0.720     0.63
   0.540    0.450    0.360     0.27
   0.180    0.080    1.360     1.35
   1.330    1.280    1.000     0.88
   0.800    0.720    0.630     0.54
   0.450    0.360    0.270     0.17
   0.070    1.360    1.340     1.34
   1.280    0.870    0.880     0.80
   0.720    0.630    0.540     0.45
   0.350    0.260    0.170     0.07
   1.370    1.340    1.340     1.27
   0.880    0.800    0.720     0.62
   0.530    0.450    0.350     0.26
   0.160    0.070    1.360     1.35
   1.330    1.280    0.880     0.80
   0.710    0.620    0.530     0.45
   0.350    0.250    0.160     0.06
   1.350    1.350    1.310     1.27
   1.030    0.940    0.880     0.79
   0.710    0.620    0.530     0.44
   0.350    0.250    0.160     0.07
   1.340    1.340    1.300     1.27
   0.780    0.940    0.870     0.79
   0.710    0.610    0.530     0.44
   0.340    0.250    0.160     0.06
   1.330    1.340    1.290     1.27
   0.870    0.780    0.930     0.87
   0.780    0.700    0.610     0.53
   0.440    0.340    0.250     0.16
   0.060    1.320    1.320     1.28
   1.260    1.160    1.090     1.02
   0.940    0.860    0.780     0.70
   0.610    0.520    0.430     0.34
   0.250    0.150    0.060     1.30
   1.310    1.260    1.250     1.17
   1.090    1.010    0.930     0.86
   0.780    0.700    0.600     0.52
   0.440    0.320    0.220     0.13
   1.270    1.300    1.260     1.25
   1.180    1.080    0.930     0.86
   0.770    0.690    0.600     0.52
   0.410    0.320    0.230     0.15
   0.010    1.270    1.280     1.25
   1.200    1.170    0.930     0.85
   0.770    0.690    0.600     0.51
   0.420    0.320    0.230     0.12
   0.050    1.170    1.090     1.01
   0.930    0.850    0.760     0.69
   0.600    0.490    0.410     0.32
   0.220    0.140    0.030     1.16
   1.090    1.010    0.920     0.84
   0.760    0.680    0.590     0.49
   0.410    0.310    0.220     0.13
   0.050    1.170    1.150     1.08
   1.000    0.920    0.840     0.76
   0.680    0.590    0.500     0.40
   0.310    0.230    0.130     0.04
   1.160    1.250    1.170     1.08
   1.000    0.910    0.830     0.75
   0.670    0.580    0.500     0.40
   0.300    0.210    0.120     0.01
   1.280    1.070    0.990     0.91
   0.830    0.750    0.670     0.57
   0.490    0.410    0.300     0.21
   1.190    1.060    0.990     0.90
   0.820    0.740    0.660     0.57
   0.480    0.390    0.300     0.21
   0.120    1.060    0.940     0.90
   0.810    0.730    0.650     0.56
   0.480    0.390    0.300     0.20
   0.930    0.830    0.770     0.68
   0.610    0.560    0.470     0.38
   0.280    0.190    0.900     0.83
   0.740    0.640    0.570     0.51
   0.440    0.360    0.270     0.18
   0.510    0.520    0.520     0.49
   0.410    0.320    0.310     0.57
   0.490    0.440    0.340     0.24
   0.150    0.680    0.650     0.58
   0.510    0.470    0.380     0.27
   0.190    0.090    0.700     0.67
   0.580    0.560    0.480     0.39
   0.290    0.200    0.100     0.78
   0.730    0.710    0.570     0.48
   0.390    0.290    0.200     0.10
   0.800    0.760    0.730     0.64
   0.570    0.480    0.350     0.28
   0.180    0.840    0.800     0.78
   0.740    0.650    0.570     0.48
   0.380    0.290    0.200     0.08
   0.000    0.850    0.840     0.82
   0.740    0.650    0.580     0.47
   0.380    0.300    0.190     0.11
   0.030    0.880    0.870     0.83
   0.820    0.740    0.660     0.58
   0.460    0.370    0.280     0.19
   0.090    0.010    0.860     0.85
   0.810    0.820    0.740     0.66
   0.580    0.460    0.380     0.30
   0.180    0.080    0.020     0.88
   0.880    0.900    0.830     0.74
   0.660    0.570    0.480     0.38
   0.280    0.200    0.110     0.88
   1.070    0.900    0.750     0.66
   0.570    0.480    0.390     0.17
   0.080    0.980    0.920     0.75
   0.660    0.580    0.480     0.39
   0.290    0.160    0.910     0.99
   0.750    0.660    0.570     0.48
   0.390    0.300    0.200     0.10
   1.080    0.990    0.920     0.87
   0.740    0.660    0.570     0.48
   0.380    0.290    0.190     0.10
   1.020    1.070    0.990     0.91
   0.870    0.750    0.650     0.56
   0.480    0.380    0.290     0.19
   0.100    1.160    1.070     0.82
   0.740    0.650    0.560     0.47
   0.380    0.290    0.190     0.09
   1.130    1.150    0.810     0.74
   0.650    0.560    0.470     0.38
   0.290    0.190    0.090     1.21
   1.130    0.820    0.740     0.65
   0.560    0.470    0.380     0.28
   0.190    0.090    1.280     1.25
   1.230    1.090    0.820     0.74
   0.640    0.560    0.460     0.37
   0.280    0.190    0.090     1.23
   1.300    1.250    1.220     0.93
   0.550    0.820    0.740     0.64
   0.560    0.470    0.370     0.28
   0.190    0.090    1.320     1.29
   1.240    1.200    0.810     0.64
   0.550    0.820    0.730     0.64
   0.560    0.460    0.370     0.28
   0.180    0.090    1.320     1.32
   1.300    0.850    0.820     0.64
   0.550    0.810    0.730     0.64
   0.550    0.460    0.370     0.28
   0.180    0.090    1.360     1.34
   1.310    1.300    0.840     0.80
   0.670    0.570    0.810     0.73
   0.640    0.550    0.460     0.37
   0.270    0.180    0.090     1.33
   1.340    1.300    1.290     0.89
   0.810    0.700    0.840     0.81
   0.730    0.640    0.550     0.45
   0.360    0.270    0.180     0.08
   1.360    1.340    1.320     1.29
   1.220    1.130    1.050     0.96
   0.870    0.810    0.730     0.64
   0.540    0.450    0.360     0.27
   0.180    0.080    1.370     1.35
   1.330    1.290    1.220     1.13
   1.040    0.960    0.880     0.81
   0.720    0.630    0.540     0.45
   0.360    0.270    0.180     0.08
   1.360    1.350    1.330     1.28
   1.000    0.880    0.800     0.72
   0.630    0.540    0.450     0.36
   0.270    0.170    0.070     1.36
   1.340    1.340    1.280     0.87
   0.880    0.800    0.720     0.63
   0.540    0.450    0.350     0.26
   0.170    0.070    1.370     1.34
   1.340    1.270    0.880     0.80
   0.720    0.620    0.530     0.45
   0.350    0.260    0.160     0.07
   1.360    1.350    1.330     1.28
   0.880    0.800    0.710     0.62
   0.530    0.450    0.350     0.25
   0.160    0.060    1.350     1.35
   1.310    1.270    1.030     0.94
   0.880    0.790    0.710     0.62
   0.530    0.440    0.350     0.25
   0.160    0.070    1.340     1.34
   1.300    1.270    0.780     0.94
   0.870    0.790    0.710     0.61
   0.530    0.440    0.340     0.25
   0.160    0.060    1.330     1.34
   1.290    1.270    0.870     0.78
   0.930    0.870    0.780     0.70
   0.610    0.530    0.440     0.34
   0.250    0.160    0.060     1.32
   1.320    1.280    1.260     1.16
   1.090    1.020    0.940     0.86
   0.780    0.700    0.610     0.52
   0.430    0.340    0.250     0.15
   0.060    1.300    1.310     1.26
   1.250    1.170    1.090     1.01
   0.930    0.860    0.780     0.70
   0.600    0.520    0.440     0.32
   0.220    0.130    1.270     1.30
   1.260    1.250    1.180     1.08
   0.930    0.860    0.770     0.69
   0.600    0.520    0.410     0.32
   0.230    0.150    0.010     1.27
   1.280    1.250    1.200     1.17
   0.930    0.850    0.770     0.69
   0.600    0.510    0.420     0.32
   0.230    0.120    0.050     1.17
   1.090    1.010    0.930     0.85
   0.760    0.690    0.600     0.49
   0.410    0.320    0.220     0.14
   0.030    1.160    1.090     1.01
   0.920    0.840    0.760     0.68
   0.590    0.490    0.410     0.31
   0.220    0.130    0.050     1.17
   1.150    1.080    1.000     0.92
   0.840    0.760    0.680     0.59
   0.500    0.400    0.310     0.23
   0.130    0.040    1.160     1.25
   1.170    1.080    1.000     0.91
   0.830    0.750    0.670     0.58
   0.500    0.400    0.300     0.21
   0.120    0.010    1.280     1.07
   0.990    0.910    0.830     0.75
   0.670    0.570    0.490     0.41
   0.300    0.210    1.190     1.06
   0.990    0.900    0.820     0.74
   0.660    0.570    0.480     0.39
   0.300    0.210    0.120     1.06
   0.940    0.900    0.810     0.73
   0.650    0.560    0.480     0.39
   0.300    0.200    0.930     0.83
   0.770    0.680    0.610     0.56
   0.470    0.380    0.280     0.19
   0.900    0.830    0.740     0.64
   0.570    0.510    0.440     0.36
   0.270    0.180    0.510     0.52
   0.520    0.490    0.410     0.32
7202.000 7562.000 11104.000 19662.00
24991.000 28770.000 26545.000  4256.00
8705.000 1831.000 1430.000 38360.00
42348.000 28765.000 40104.000 35145.00
6807.000 13608.000  914.000 18847.00
44030.000 45396.000 41780.000 45176.00
41208.000 10098.000 12617.000 22859.00
57120.000 48993.000 36903.000 50693.00
42364.000 32766.000 10134.000 15273.00
37118.000 26653.000 49476.000 49028.00
14763.000 4931.000 2990.000  6844.00
9166.000 14901.000 44510.000 50041.00
48996.000 30024.000 2297.000  2921.00
12212.000 3624.000 1638.000  5815.00
15482.000 34961.000 44520.000 49166.00
43350.000 1399.000 2712.000 19680.00
7343.000 9931.000 17205.000  7220.00
8059.000 8520.000 51207.000 51901.00
51722.000 47054.000 1173.000  2267.00
4678.000 11466.000 5353.000  9096.00
8510.000 4235.000 3220.000 46246.00
46571.000 58582.000 50990.000   953.00
3567.000 20164.000 3409.000  1617.00
16743.000 4029.000 1901.000 25067.00
33409.000 50215.000 60778.000 51124.00
23881.000 3345.000 7052.000 15473.00
12247.000 5078.000 1139.000 48498.00
53104.000 53925.000 56428.000 53782.00
12300.000 3403.000 1613.000 16303.00
8493.000 48027.000 54714.000 55171.00
52674.000 41240.000 18972.000  3844.00
5746.000 45205.000 24744.000 49373.00
51472.000 56863.000 46556.000 43588.00
39673.000 37927.000 23057.000  1773.00
7787.000 37603.000 22200.000 47789.00
50997.000 50536.000 43901.000 45077.00
40674.000 33811.000 18502.000 42919.00
3044.000 3847.000 29968.000 41520.00
47940.000 59594.000 56326.000 45941.00
44414.000 41416.000 39074.000 22121.00
1951.000 6165.000 47744.000 41742.00
51434.000 49624.000 37572.000 41746.00
39888.000 32117.000 16836.000 42368.00
26713.000 49490.000 41437.000 49832.00
54767.000 42742.000 45223.000 39999.00
36346.000 3271.000 3632.000 40476.00
51281.000 44082.000 56240.000 50299.00
39503.000 45413.000 39944.000 39272.00
2353.000 5025.000 47259.000  1117.00
47677.000 48062.000 37951.000 47329.00
51918.000 43430.000 44030.000 43879.00
39154.000 18973.000 6503.000  7597.00
35489.000 1460.000 4290.000 56900.00
46073.000 42428.000 41147.000 48598.00
37219.000 46916.000 46118.000 39032.00
4150.000 6939.000 8911.000  3044.00
1738.000 1587.000 3293.000 58680.00
52424.000 45478.000 48140.000 53523.00
39879.000 47205.000 46027.000 44080.00
5043.000 14008.000 27188.000  2244.00
2694.000 2833.000 3529.000 53344.00
49603.000 47868.000 43723.000 45911.00
41326.000 41245.000 43402.000 43165.00
7167.000 8161.000 9867.000 41379.00
3988.000 3660.000 3502.000  1787.00
52825.000 38801.000 44901.000 49232.00
43128.000 43369.000 40355.000 44825.00
46260.000 15725.000 6334.000  5942.00
42572.000 2927.000 6225.000  3888.00
1120.000 53160.000 44656.000 45741.00
48308.000 46877.000 36821.000 40343.00
40782.000 39060.000 11128.000  8981.00
7803.000 33915.000 3195.000  6681.00
7292.000 12304.000 6283.000 52860.00
51589.000 48123.000 46862.000 41591.00
41920.000 41255.000 40072.000 46157.00
8386.000 10035.000 7540.000 26833.00
1528.000 2343.000 2977.000  5046.00
15074.000 58961.000 51749.000 51628.00
48230.000 45034.000 42453.000 40922.00
35359.000 41016.000 14257.000 10001.00
7933.000 19349.000 4998.000 43738.00
54551.000 54961.000 54611.000 54350.00
50007.000 44347.000 38415.000 44167.00
42486.000 16331.000 12007.000  9769.00
15009.000  733.000 50768.000 57298.00
55910.000 51477.000 51370.000 56522.00
44707.000 43590.000 39917.000 44146.00
11323.000 8003.000 13533.000 15212.00
57182.000 52307.000 53166.000 50860.00
49088.000 51056.000 44004.000 34598.00
47444.000 43173.000 10885.000 13847.00
9547.000 22722.000 50171.000 54897.00
53304.000 52275.000 55182.000 49280.00
48060.000 38792.000 47389.000 32245.00
11362.000 11414.000 8549.000 37773.00
1097.000  911.000 45639.000 53441.00
50383.000 48472.000 58160.000 49456.00
45535.000 41637.000 45019.000 40340.00
10977.000 8554.000 9447.000 46993.00
1037.000 1541.000 55650.000 57148.00
54468.000 52932.000 55050.000 48032.00
49307.000 37430.000 44111.000 35053.00
10947.000 11422.000 8373.000 52319.00
4275.000 2266.000 1105.000 54838.00
53683.000 51639.000 45338.000 53290.00
56976.000 42606.000 46041.000 37561.00
25980.000 10325.000 12458.000 12952.00
41639.000 1535.000 1700.000 28154.00
12730.000 50927.000 54223.000 50127.00
45495.000 52434.000 51137.000 43949.00
39591.000 32607.000 22861.000 11178.00
10418.000 10444.000 42131.000  4199.00
 885.000 2537.000 22947.000 49612.00
51914.000 42509.000 50567.000 54634.00
28283.000 3004.000 3209.000  1763.00
23036.000 8930.000 13667.000 20421.00
25921.000 1694.000 36748.000 57990.00
52996.000 38863.000 46647.000 47823.00
3395.000 3612.000 11069.000 12351.00
3690.000 13435.000 5863.000  6376.00
9154.000 50712.000 47447.000 32046.00
65263.000 51456.000 53080.000  7266.00
5027.000 11256.000 27609.000  4289.00
16966.000 48633.000 9655.000 45048.00
53909.000 57401.000 49037.000 47583.00
54427.000 2349.000 4821.000 27165.00
11487.000 17150.000 3215.000 39384.00
52737.000 51411.000 51100.000 59015.00
55368.000 43740.000 60757.000  4209.00
3790.000 13504.000 4844.000  5295.00
11722.000 4084.000 39037.000 51431.00
52691.000 47498.000 52351.000 49896.00
46982.000 50462.000 32700.000  4203.00
6069.000 21550.000 9633.000 12777.00
30029.000 1101.000 4357.000 51416.00
53725.000 48333.000 54216.000 54799.00
48434.000 47645.000 60242.000  3970.00
1139.000 5677.000 4061.000  3864.00
 675.000 52547.000 52744.000 49167.00
48349.000 58522.000 47234.000 45267.00
48093.000 50800.000 24228.000  4433.00
 684.000 50004.000 47101.000 41677.00
45130.000 58175.000 47324.000 49674.00
45350.000 41329.000 40011.000 36512.00
28754.000 30302.000 2477.000 33103.00
13020.000 53837.000 46422.000 49965.00
44176.000 41233.000 42205.000 39049.00
1736.000 3649.000 7758.000 13923.00
12266.000 50557.000 39531.000 37792.00
32197.000 30252.000 3657.000  4069.00
2355.000 3434.000 7803.000 17327.00
25632.000 26029.000 21114.000  8838.00
7128.000 8646.000 6496.000 13272.00
13142.000 14656.000 7202.000  7562.00
11104.000 19662.000 24991.000 28770.00
26545.000 4256.000 8705.000  1831.00
1430.000 38360.000 42348.000 28765.00
40104.000 35145.000 6807.000 13608.00
 914.000 18847.000 44030.000 45396.00
41780.000 45176.000 41208.000 10098.00
12617.000 22859.000 57120.000 48993.00
36903.000 50693.000 42364.000 32766.00
10134.000 15273.000 37118.000 26653.00
49476.000 49028.000 14763.000  4931.00
2990.000 6844.000 9166.000 14901.00
44510.000 50041.000 48996.000 30024.00
2297.000 2921.000 12212.000  3624.00
1638.000 5815.000 15482.000 34961.00
44520.000 49166.000 43350.000  1399.00
2712.000 19680.000 7343.000  9931.00
17205.000 7220.000 8059.000  8520.00
51207.000 51901.000 51722.000 47054.00
1173.000 2267.000 4678.000 11466.00
5353.000 9096.000 8510.000  4235.00
3220.000 46246.000 46571.000 58582.00
50990.000  953.000 3567.000 20164.00
3409.000 1617.000 16743.000  4029.00
1901.000 25067.000 33409.000 50215.00
60778.000 51124.000 23881.000  3345.00
7052.000 15473.000 12247.000  5078.00
1139.000 48498.000 53104.000 53925.00
56428.000 53782.000 12300.000  3403.00
1613.000 16303.000 8493.000 48027.00
54714.000 55171.000 52674.000 41240.00
18972.000 3844.000 5746.000 45205.00
24744.000 49373.000 51472.000 56863.00
46556.000 43588.000 39673.000 37927.00
23057.000 1773.000 7787.000 37603.00
22200.000 47789.000 50997.000 50536.00
43901.000 45077.000 40674.000 33811.00
18502.000 42919.000 3044.000  3847.00
29968.000 41520.000 47940.000 59594.00
56326.000 45941.000 44414.000 41416.00
39074.000 22121.000 1951.000  6165.00
47744.000 41742.000 51434.000 49624.00
37572.000 41746.000 39888.000 32117.00
16836.000 42368.000 26713.000 49490.00
41437.000 49832.000 54767.000 42742.00
45223.000 39999.000 36346.000  3271.00
3632.000 40476.000 51281.000 44082.00
56240.000 50299.000 39503.000 45413.00
39944.000 39272.000 2353.000  5025.00
47259.000 1117.000 47677.000 48062.00
37951.000 47329.000 51918.000 43430.00
44030.000 43879.000 39154.000 18973.00
6503.000 7597.000 35489.000  1460.00
4290.000 56900.000 46073.000 42428.00
41147.000 48598.000 37219.000 46916.00
46118.000 39032.000 4150.000  6939.00
8911.000 3044.000 1738.000  1587.00
3293.000 58680.000 52424.000 45478.00
48140.000 53523.000 39879.000 47205.00
46027.000 44080.000 5043.000 14008.00
27188.000 2244.000 2694.000  2833.00
3529.000 53344.000 49603.000 47868.00
43723.000 45911.000 41326.000 41245.00
43402.000 43165.000 7167.000  8161.00
9867.000 41379.000 3988.000  3660.00
3502.000 1787.000 52825.000 38801.00
44901.000 49232.000 43128.000 43369.00
40355.000 44825.000 46260.000 15725.00
6334.000 5942.000 42572.000  2927.00
6225.000 3888.000 1120.000 53160.00
44656.000 45741.000 48308.000 46877.00
36821.000 40343.000 40782.000 39060.00
11128.000 8981.000 7803.000 33915.00
3195.000 6681.000 7292.000 12304.00
6283.000 52860.000 51589.000 48123.00
46862.000 41591.000 41920.000 41255.00
40072.000 46157.000 8386.000 10035.00
7540.000 26833.000 1528.000  2343.00
2977.000 5046.000 15074.000 58961.00
51749.000 51628.000 48230.000 45034.00
42453.000 40922.000 35359.000 41016.00
14257.000 10001.000 7933.000 19349.00
4998.000 43738.000 54551.000 54961.00
54611.000 54350.000 50007.000 44347.00
38415.000 44167.000 42486.000 16331.00
12007.000 9769.000 15009.000   733.00
50768.000 57298.000 55910.000 51477.00
51370.000 56522.000 44707.000 43590.00
39917.000 44146.000 11323.000  8003.00
13533.000 15212.000 57182.000 52307.00
53166.000 50860.000 49088.000 51056.00
44004.000 34598.000 47444.000 43173.00
10885.000 13847.000 9547.000 22722.00
50171.000 54897.000 53304.000 52275.00
55182.000 49280.000 48060.000 38792.00
47389.000 32245.000 11362.000 11414.00
8549.000 37773.000 1097.000   911.00
45639.000 53441.000 50383.000 48472.00
58160.000 49456.000 45535.000 41637.00
45019.000 40340.000 10977.000  8554.00
9447.000 46993.000 1037.000  1541.00
55650.000 57148.000 54468.000 52932.00
55050.000 48032.000 49307.000 37430.00
44111.000 35053.000 10947.000 11422.00
8373.000 52319.000 4275.000  2266.00
1105.000 54838.000 53683.000 51639.00
45338.000 53290.000 56976.000 42606.00
46041.000 37561.000 25980.000 10325.00
12458.000 12952.000 41639.000  1535.00
1700.000 28154.000 12730.000 50927.00
54223.000 50127.000 45495.000 52434.00
51137.000 43949.000 39591.000 32607.00
22861.000 11178.000 10418.000 10444.00
42131.000 4199.000  885.000  2537.00
22947.000 49612.000 51914.000 42509.00
50567.000 54634.000 28283.000  3004.00
3209.000 1763.000 23036.000  8930.00
13667.000 20421.000 25921.000  1694.00
36748.000 57990.000 52996.000 38863.00
46647.000 47823.000 3395.000  3612.00
11069.000 12351.000 3690.000 13435.00
5863.000 6376.000 9154.000 50712.00
47447.000 32046.000 65263.000 51456.00
53080.000 7266.000 5027.000 11256.00
27609.000 4289.000 16966.000 48633.00
9655.000 45048.000 53909.000 57401.00
49037.000 47583.000 54427.000  2349.00
4821.000 27165.000 11487.000 17150.00
3215.000 39384.000 52737.000 51411.00
51100.000 59015.000 55368.000 43740.00
60757.000 4209.000 3790.000 13504.00
4844.000 5295.000 11722.000  4084.00
39037.000 51431.000 52691.000 47498.00
52351.000 49896.000 46982.000 50462.00
32700.000 4203.000 6069.000 21550.00
9633.000 12777.000 30029.000  1101.00
4357.000 51416.000 53725.000 48333.00
54216.000 54799.000 48434.000 47645.00
60242.000 3970.000 1139.000  5677.00
4061.000 3864.000  675.000 52547.00
52744.000 49167.000 48349.000 58522.00
47234.000 45267.000 48093.000 50800.00
24228.000 4433.000  684.000 50004.00
47101.000 41677.000 45130.000 58175.00
47324.000 49674.000 45350.000 41329.00
40011.000 36512.000 28754.000 30302.00
2477.000 33103.000 13020.000 53837.00
46422.000 49965.000 44176.000 41233.00
42205.000 39049.000 1736.000  3649.00
7758.000 13923.000 12266.000 50557.00
39531.000 37792.000 32197.000 30252.00
3657.000 4069.000 2355.000  3434.00
7803.000 17327.000 25632.000 26029.00
21114.000 8838.000 7128.000  8646.00
6496.000 13272.000 13142.000 14656.00
