-13.56 -6.17 -4.28 7202.00
-13.64 -6.06 -4.02 7562.00
-13.61 -6.06 -4.10 11104.00
-13.44 -6.02 -4.15 19662.00
-13.45 -6.03 -4.25 24991.00
-13.46 -6.04 -4.35 28770.00
-13.46 -6.05 -4.44 26545.00
-13.93 -6.04 -3.91 4256.00
-13.70 -5.98 -3.94 8705.00
-13.58 -5.94 -4.01 1831.00
-13.53 -5.95 -4.08 1430.00
-13.34 -5.91 -4.12 38360.00
-13.31 -5.90 -4.21 42348.00
-13.39 -5.92 -4.32 28765.00
-13.33 -5.92 -4.40 40104.00
-13.34 -5.94 -4.50 35145.00
-13.87 -5.92 -3.89 6807.00
-13.63 -5.87 -3.92 13608.00
-13.58 -5.85 -4.01 914.00
-13.37 -5.81 -4.03 18847.00
-13.32 -5.80 -4.11 44030.00
-13.29 -5.80 -4.20 45396.00
-13.29 -5.80 -4.30 41780.00
-13.31 -5.82 -4.39 45176.00
-13.33 -5.84 -4.49 41208.00
-13.92 -5.84 -3.81 10098.00
-13.75 -5.80 -3.86 12617.00
-13.49 -5.73 -3.88 22859.00
-13.33 -5.70 -4.02 57120.00
-13.30 -5.70 -4.11 48993.00
-13.30 -5.71 -4.20 36903.00
-13.29 -5.71 -4.30 50693.00
-13.31 -5.73 -4.39 42364.00
-13.31 -5.74 -4.49 32766.00
-13.83 -5.71 -3.79 10134.00
-13.62 -5.66 -3.83 15273.00
-13.40 -5.62 -3.86 37118.00
-13.36 -5.60 -3.95 26653.00
-13.31 -5.61 -4.02 49476.00
-13.29 -5.61 -4.11 49028.00
-13.41 -5.64 -4.24 14763.00
-13.32 -5.63 -4.31 4931.00
-13.36 -5.65 -4.41 2990.00
-14.02 -5.65 -3.75 6844.00
-13.82 -5.61 -3.79 9166.00
-13.57 -5.55 -3.81 14901.00
-13.37 -5.51 -3.85 44510.00
-13.34 -5.50 -3.94 50041.00
-13.30 -5.51 -4.02 48996.00
-13.29 -5.52 -4.11 30024.00
-13.30 -5.53 -4.21 2297.00
-13.29 -5.52 -4.30 2921.00
-13.30 -5.54 -4.39 12212.00
-13.38 -5.57 -4.51 3624.00
-13.33 -5.56 -4.59 1638.00
-13.97 -5.54 -3.74 5815.00
-13.67 -5.48 -3.75 15482.00
-13.41 -5.42 -3.77 34961.00
-13.37 -5.42 -3.85 44520.00
-13.32 -5.40 -3.94 49166.00
-13.29 -5.41 -4.01 43350.00
-13.33 -5.43 -4.12 1399.00
-13.31 -5.44 -4.21 2712.00
-13.28 -5.43 -4.29 19680.00
-13.32 -5.45 -4.40 7343.00
-13.28 -5.45 -4.48 9931.00
-13.25 -5.45 -4.56 17205.00
-14.25 -5.51 -3.71 7220.00
-13.91 -5.42 -3.72 8059.00
-13.70 -5.39 -3.76 8520.00
-13.40 -5.33 -3.77 51207.00
-13.35 -5.32 -3.85 51901.00
-13.30 -5.32 -3.93 51722.00
-13.28 -5.32 -4.01 47054.00
-13.34 -5.34 -4.13 1173.00
-13.33 -5.35 -4.22 2267.00
-13.33 -5.35 -4.31 4678.00
-13.31 -5.36 -4.40 11466.00
-13.33 -5.37 -4.50 5353.00
-13.29 -5.37 -4.58 9096.00
-14.33 -5.43 -3.73 8510.00
-13.95 -5.35 -3.74 4235.00
-13.76 -5.31 -3.78 3220.00
-13.39 -5.23 -3.77 46246.00
-13.35 -5.23 -3.85 46571.00
-13.30 -5.23 -3.93 58582.00
-13.28 -5.23 -4.01 50990.00
-13.36 -5.26 -4.13 953.00
-13.32 -5.25 -4.21 3567.00
-13.27 -5.24 -4.29 20164.00
-13.36 -5.28 -4.41 3409.00
-13.35 -5.29 -4.51 1617.00
-13.29 -5.28 -4.57 16743.00
-14.63 -5.39 -3.71 4029.00
-13.83 -5.22 -3.71 1901.00
-13.40 -5.14 -3.69 25067.00
-13.36 -5.14 -3.76 33409.00
-13.34 -5.14 -3.85 50215.00
-13.30 -5.12 -3.93 60778.00
-13.28 -5.14 -4.02 51124.00
-13.29 -5.15 -4.11 23881.00
-13.32 -5.16 -4.21 3345.00
-13.33 -5.16 -4.31 7052.00
-13.27 -5.16 -4.39 15473.00
-13.27 -5.17 -4.48 12247.00
-14.63 -5.30 -3.71 5078.00
-13.50 -5.06 -3.52 1139.00
-13.40 -5.04 -3.69 48498.00
-13.31 -5.04 -3.84 53104.00
-13.28 -5.04 -3.93 53925.00
-13.27 -5.05 -4.02 56428.00
-13.26 -5.05 -4.11 53782.00
-13.27 -5.06 -4.20 12300.00
-13.38 -5.10 -4.42 3403.00
-13.35 -5.10 -4.51 1613.00
-13.44 -4.94 -3.61 16303.00
-13.32 -4.94 -3.67 8493.00
-13.30 -4.95 -3.84 48027.00
-13.27 -4.94 -3.93 54714.00
-13.26 -4.95 -4.01 55171.00
-13.27 -4.97 -4.11 52674.00
-13.26 -4.97 -4.20 41240.00
-13.28 -4.97 -4.30 18972.00
-13.41 -5.02 -4.43 3844.00
-14.86 -5.14 -3.68 5746.00
-13.41 -4.85 -3.60 45205.00
-13.31 -4.86 -3.84 24744.00
-13.27 -4.86 -3.93 49373.00
-13.27 -4.87 -4.02 51472.00
-13.28 -4.87 -4.11 56863.00
-13.27 -4.88 -4.20 46556.00
-13.26 -4.88 -4.29 43588.00
-13.28 -4.89 -4.39 39673.00
-13.30 -4.90 -4.49 37927.00
-13.42 -4.76 -3.51 23057.00
-13.40 -4.76 -3.60 1773.00
-13.33 -4.76 -3.67 7787.00
-13.16 -4.73 -3.72 37603.00
-13.32 -4.77 -3.85 22200.00
-13.28 -4.76 -3.93 47789.00
-13.28 -4.77 -4.02 50997.00
-13.28 -4.78 -4.11 50536.00
-13.28 -4.79 -4.21 43901.00
-13.27 -4.79 -4.30 45077.00
-13.29 -4.80 -4.40 40674.00
-13.30 -4.81 -4.49 33811.00
-14.79 -4.91 -3.57 18502.00
-13.43 -4.67 -3.52 42919.00
-13.39 -4.67 -3.60 3044.00
-13.36 -4.67 -3.68 3847.00
-13.16 -4.64 -3.72 29968.00
-13.29 -4.67 -3.84 41520.00
-13.28 -4.67 -3.94 47940.00
-13.28 -4.68 -4.03 59594.00
-13.28 -4.69 -4.11 56326.00
-13.28 -4.70 -4.21 45941.00
-13.28 -4.69 -4.30 44414.00
-13.28 -4.71 -4.40 41416.00
-13.30 -4.72 -4.49 39074.00
-13.44 -4.58 -3.43 22121.00
-13.43 -4.58 -3.52 1951.00
-13.35 -4.59 -3.77 6165.00
-13.30 -4.59 -3.85 47744.00
-13.28 -4.58 -3.94 41742.00
-13.28 -4.59 -4.03 51434.00
-13.27 -4.60 -4.12 49624.00
-13.27 -4.61 -4.21 37572.00
-13.27 -4.61 -4.30 41746.00
-13.30 -4.62 -4.40 39888.00
-13.31 -4.64 -4.50 32117.00
-14.77 -4.72 -3.46 16836.00
-13.47 -4.49 -3.44 42368.00
-13.35 -4.50 -3.78 26713.00
-13.30 -4.50 -3.85 49490.00
-13.28 -4.49 -3.94 41437.00
-13.28 -4.50 -4.03 49832.00
-13.27 -4.51 -4.12 54767.00
-13.27 -4.52 -4.21 42742.00
-13.27 -4.51 -4.30 45223.00
-13.29 -4.53 -4.40 39999.00
-13.31 -4.55 -4.50 36346.00
-13.58 -4.42 -3.38 3271.00
-13.53 -4.42 -3.46 3632.00
-13.32 -4.41 -3.77 40476.00
-13.30 -4.41 -3.85 51281.00
-13.29 -4.41 -3.94 44082.00
-13.28 -4.42 -4.03 56240.00
-13.28 -4.42 -4.12 50299.00
-13.27 -4.43 -4.21 39503.00
-13.28 -4.43 -4.31 45413.00
-13.29 -4.45 -4.40 39944.00
-13.30 -4.46 -4.50 39272.00
-14.09 -4.41 -3.31 2353.00
-13.77 -4.34 -3.34 5025.00
-13.49 -4.31 -3.36 47259.00
-13.68 -4.35 -3.50 1117.00
-13.32 -4.31 -3.77 47677.00
-13.29 -4.32 -3.85 48062.00
-13.28 -4.32 -3.95 37951.00
-13.28 -4.33 -4.03 47329.00
-13.29 -4.34 -4.13 51918.00
-13.28 -4.34 -4.22 43430.00
-13.28 -4.34 -4.31 44030.00
-13.29 -4.36 -4.40 43879.00
-13.29 -4.36 -4.50 39154.00
-14.73 -4.41 -3.36 18973.00
-13.98 -4.29 -3.29 6503.00
-13.76 -4.25 -3.34 7597.00
-13.49 -4.22 -3.37 35489.00
-14.34 -4.37 -3.66 1460.00
-14.63 -4.43 -4.04 4290.00
-13.31 -4.22 -3.77 56900.00
-13.29 -4.23 -3.85 46073.00
-13.28 -4.23 -3.95 42428.00
-13.27 -4.24 -4.03 41147.00
-13.27 -4.24 -4.12 48598.00
-13.26 -4.25 -4.22 37219.00
-13.27 -4.25 -4.31 46916.00
-13.29 -4.27 -4.40 46118.00
-13.29 -4.27 -4.50 39032.00
-14.27 -4.24 -3.27 4150.00
-13.98 -4.20 -3.30 6939.00
-13.77 -4.16 -3.35 8911.00
-13.59 -4.14 -3.39 3044.00
-14.42 -4.29 -3.78 1738.00
-14.67 -4.33 -3.95 1587.00
-14.62 -4.33 -4.04 3293.00
-13.32 -4.14 -3.77 58680.00
-13.29 -4.14 -3.86 52424.00
-13.28 -4.14 -3.95 45478.00
-13.27 -4.15 -4.03 48140.00
-13.27 -4.16 -4.13 53523.00
-13.27 -4.16 -4.22 39879.00
-13.27 -4.16 -4.31 47205.00
-13.28 -4.18 -4.41 46027.00
-13.29 -4.19 -4.50 44080.00
-14.25 -4.14 -3.27 5043.00
-13.86 -4.09 -3.27 14008.00
-13.53 -4.03 -3.29 27188.00
-14.64 -4.22 -3.74 2244.00
-14.37 -4.19 -3.77 2694.00
-14.65 -4.23 -3.95 2833.00
-14.60 -4.23 -4.04 3529.00
-13.31 -4.05 -3.78 53344.00
-13.29 -4.05 -3.86 49603.00
-13.28 -4.05 -3.95 47868.00
-13.27 -4.06 -4.04 43723.00
-13.27 -4.07 -4.13 45911.00
-13.28 -4.08 -4.22 41326.00
-13.27 -4.07 -4.31 41245.00
-13.28 -4.09 -4.41 43402.00
-13.29 -4.10 -4.50 43165.00
-14.49 -4.07 -3.23 7167.00
-14.18 -4.04 -3.25 8161.00
-13.88 -4.00 -3.28 9867.00
-13.54 -3.95 -3.29 41379.00
-14.66 -4.13 -3.75 3988.00
-14.41 -4.10 -3.79 3660.00
-14.52 -4.12 -3.92 3502.00
-14.52 -4.13 -4.02 1787.00
-13.30 -3.96 -3.78 52825.00
-13.28 -3.97 -3.86 38801.00
-13.27 -3.96 -3.95 44901.00
-13.27 -3.97 -4.04 49232.00
-13.27 -3.98 -4.13 43128.00
-13.28 -3.99 -4.22 43369.00
-13.28 -3.99 -4.32 40355.00
-13.29 -3.99 -4.41 44825.00
-13.29 -4.00 -4.50 46260.00
-14.63 -4.00 -3.26 15725.00
-14.17 -3.94 -3.25 6334.00
-13.89 -3.91 -3.29 5942.00
-13.53 -3.86 -3.30 42572.00
-14.44 -4.01 -3.70 2927.00
-14.37 -4.00 -3.78 6225.00
-14.38 -3.99 -3.89 3888.00
-13.54 -3.90 -3.75 1120.00
-13.30 -3.87 -3.78 53160.00
-13.28 -3.87 -3.86 44656.00
-13.26 -3.87 -3.95 45741.00
-13.27 -3.89 -4.04 48308.00
-13.28 -3.90 -4.14 46877.00
-13.28 -3.90 -4.23 36821.00
-13.28 -3.89 -4.32 40343.00
-13.29 -3.90 -4.41 40782.00
-13.30 -3.91 -4.51 39060.00
-14.48 -3.88 -3.23 11128.00
-14.14 -3.85 -3.25 8981.00
-13.81 -3.81 -3.27 7803.00
-13.52 -3.77 -3.30 33915.00
-13.47 -3.77 -3.37 3195.00
-13.44 -3.78 -3.46 6681.00
-13.41 -3.78 -3.54 7292.00
-13.39 -3.78 -3.63 12304.00
-13.39 -3.79 -3.72 6283.00
-13.30 -3.78 -3.78 52860.00
-13.27 -3.79 -3.86 51589.00
-13.26 -3.78 -3.95 48123.00
-13.28 -3.79 -4.05 46862.00
-13.28 -3.80 -4.14 41591.00
-13.26 -3.81 -4.23 41920.00
-13.27 -3.81 -4.32 41255.00
-13.29 -3.82 -4.41 40072.00
-13.30 -3.83 -4.51 46157.00
-14.39 -3.77 -3.22 8386.00
-14.08 -3.75 -3.24 10035.00
-13.77 -3.71 -3.26 7540.00
-13.52 -3.68 -3.30 26833.00
-13.46 -3.68 -3.37 1528.00
-13.47 -3.70 -3.46 2343.00
-13.45 -3.70 -3.55 2977.00
-13.40 -3.69 -3.63 5046.00
-13.36 -3.69 -3.71 15074.00
-13.31 -3.70 -3.78 58961.00
-13.28 -3.69 -3.87 51749.00
-13.27 -3.70 -3.96 51628.00
-13.28 -3.70 -4.05 48230.00
-13.27 -3.71 -4.14 45034.00
-13.26 -3.72 -4.23 42453.00
-13.26 -3.72 -4.32 40922.00
-13.28 -3.73 -4.41 35359.00
-13.29 -3.74 -4.51 41016.00
-14.43 -3.68 -3.23 14257.00
-14.07 -3.65 -3.24 10001.00
-13.75 -3.63 -3.26 7933.00
-13.52 -3.59 -3.31 19349.00
-14.35 -3.70 -3.59 4998.00
-13.34 -3.60 -3.71 43738.00
-13.31 -3.61 -3.79 54551.00
-13.28 -3.61 -3.87 54961.00
-13.26 -3.60 -3.96 54611.00
-13.28 -3.62 -4.05 54350.00
-13.28 -3.62 -4.14 50007.00
-13.27 -3.63 -4.23 44347.00
-13.27 -3.63 -4.32 38415.00
-13.29 -3.64 -4.42 44167.00
-13.30 -3.65 -4.52 42486.00
-14.42 -3.59 -3.23 16331.00
-14.08 -3.56 -3.25 12007.00
-13.70 -3.52 -3.25 9769.00
-13.54 -3.50 -3.31 15009.00
-13.70 -3.54 -3.72 733.00
-13.32 -3.52 -3.71 50768.00
-13.29 -3.52 -3.79 57298.00
-13.27 -3.52 -3.87 55910.00
-13.26 -3.51 -3.96 51477.00
-13.27 -3.53 -4.05 51370.00
-13.28 -3.54 -4.14 56522.00
-13.28 -3.54 -4.24 44707.00
-13.28 -3.54 -4.33 43590.00
-13.29 -3.55 -4.42 39917.00
-13.30 -3.56 -4.52 44146.00
-14.36 -3.49 -3.22 11323.00
-14.09 -3.48 -3.25 8003.00
-13.68 -3.44 -3.25 13533.00
-13.55 -3.41 -3.32 15212.00
-13.32 -3.43 -3.71 57182.00
-13.29 -3.43 -3.79 52307.00
-13.28 -3.43 -3.87 53166.00
-13.27 -3.43 -3.97 50860.00
-13.28 -3.44 -4.06 49088.00
-13.27 -3.45 -4.14 51056.00
-13.27 -3.45 -4.24 44004.00
-13.27 -3.45 -4.33 34598.00
-13.30 -3.47 -4.43 47444.00
-13.30 -3.47 -4.52 43173.00
-14.38 -3.40 -3.23 10885.00
-14.02 -3.38 -3.24 13847.00
-13.71 -3.35 -3.26 9547.00
-13.51 -3.32 -3.31 22722.00
-13.31 -3.34 -3.71 50171.00
-13.29 -3.35 -3.79 54897.00
-13.28 -3.35 -3.88 53304.00
-13.27 -3.34 -3.97 52275.00
-13.27 -3.35 -4.06 55182.00
-13.26 -3.36 -4.14 49280.00
-13.26 -3.37 -4.24 48060.00
-13.29 -3.37 -4.34 38792.00
-13.29 -3.38 -4.43 47389.00
-13.30 -3.39 -4.53 32245.00
-14.39 -3.30 -3.24 11362.00
-14.02 -3.29 -3.24 11414.00
-13.75 -3.26 -3.28 8549.00
-13.51 -3.24 -3.32 37773.00
-13.43 -3.25 -3.56 1097.00
-13.39 -3.24 -3.65 911.00
-13.32 -3.25 -3.71 45639.00
-13.30 -3.26 -3.80 53441.00
-13.28 -3.26 -3.88 50383.00
-13.27 -3.26 -3.97 48472.00
-13.27 -3.27 -4.06 58160.00
-13.26 -3.27 -4.15 49456.00
-13.26 -3.28 -4.24 45535.00
-13.28 -3.28 -4.34 41637.00
-13.29 -3.29 -4.43 45019.00
-13.29 -3.30 -4.52 40340.00
-14.44 -3.22 -3.25 10977.00
-14.03 -3.19 -3.25 8554.00
-13.80 -3.18 -3.29 9447.00
-13.51 -3.15 -3.32 46993.00
-14.75 -3.27 -3.81 1037.00
-13.40 -3.16 -3.65 1541.00
-13.32 -3.16 -3.72 55650.00
-13.31 -3.17 -3.80 57148.00
-13.28 -3.17 -3.88 54468.00
-13.26 -3.17 -3.98 52932.00
-13.27 -3.18 -4.06 55050.00
-13.28 -3.19 -4.15 48032.00
-13.28 -3.20 -4.25 49307.00
-13.28 -3.19 -4.34 37430.00
-13.29 -3.20 -4.43 44111.00
-13.29 -3.21 -4.53 35053.00
-14.45 -3.13 -3.26 10947.00
-14.03 -3.10 -3.25 11422.00
-13.82 -3.09 -3.30 8373.00
-13.51 -3.06 -3.32 52319.00
-14.77 -3.17 -3.72 4275.00
-14.77 -3.18 -3.81 2266.00
-13.42 -3.08 -3.66 1105.00
-13.33 -3.08 -3.72 54838.00
-13.31 -3.08 -3.81 53683.00
-13.29 -3.09 -3.89 51639.00
-13.27 -3.08 -3.98 45338.00
-13.26 -3.09 -4.06 53290.00
-13.26 -3.10 -4.15 56976.00
-13.28 -3.11 -4.25 42606.00
-13.26 -3.10 -4.34 46041.00
-13.28 -3.12 -4.43 37561.00
-13.28 -3.12 -4.53 25980.00
-14.51 -3.04 -3.27 10325.00
-14.09 -3.01 -3.27 12458.00
-13.87 -3.01 -3.31 12952.00
-13.52 -2.97 -3.33 41639.00
-13.57 -2.99 -3.43 1535.00
-13.51 -2.99 -3.50 1700.00
-13.42 -2.99 -3.57 28154.00
-13.37 -2.98 -3.65 12730.00
-13.33 -2.99 -3.73 50927.00
-13.31 -2.99 -3.81 54223.00
-13.29 -3.00 -3.89 50127.00
-13.27 -3.00 -3.98 45495.00
-13.26 -3.01 -4.07 52434.00
-13.26 -3.01 -4.16 51137.00
-13.26 -3.02 -4.25 43949.00
-13.27 -3.02 -4.34 39591.00
-13.29 -3.02 -4.44 32607.00
-13.29 -3.04 -4.53 22861.00
-14.57 -2.95 -3.29 11178.00
-14.11 -2.92 -3.28 10418.00
-13.91 -2.92 -3.33 10444.00
-13.54 -2.89 -3.34 42131.00
-13.53 -2.89 -3.42 4199.00
-13.51 -2.90 -3.50 885.00
-13.47 -2.90 -3.58 2537.00
-13.38 -2.89 -3.66 22947.00
-13.32 -2.90 -3.73 49612.00
-13.31 -2.91 -3.81 51914.00
-13.28 -2.91 -3.89 42509.00
-13.27 -2.91 -3.99 50567.00
-13.26 -2.92 -4.07 54634.00
-13.24 -2.92 -4.15 28283.00
-13.32 -2.94 -4.27 3004.00
-13.34 -2.94 -4.37 3209.00
-13.34 -2.95 -4.46 1763.00
-14.67 -2.85 -3.32 23036.00
-14.16 -2.83 -3.29 8930.00
-13.90 -2.83 -3.33 13667.00
-13.54 -2.80 -3.34 20421.00
-13.49 -2.81 -3.41 25921.00
-13.51 -2.81 -3.51 1694.00
-13.36 -2.80 -3.66 36748.00
-13.33 -2.82 -3.73 57990.00
-13.32 -2.82 -3.82 52996.00
-13.29 -2.82 -3.90 38863.00
-13.27 -2.82 -3.99 46647.00
-13.26 -2.83 -4.07 47823.00
-13.31 -2.84 -4.18 3395.00
-13.31 -2.85 -4.27 3612.00
-13.30 -2.84 -4.36 11069.00
-13.28 -2.86 -4.44 12351.00
-13.41 -2.87 -4.58 3690.00
-14.66 -2.76 -3.32 13435.00
-14.23 -2.75 -3.31 5863.00
-13.95 -2.74 -3.34 6376.00
-13.73 -2.72 -3.39 9154.00
-13.48 -2.72 -3.42 50712.00
-13.36 -2.72 -3.66 47447.00
-13.34 -2.73 -3.74 32046.00
-13.32 -2.74 -3.82 65263.00
-13.29 -2.73 -3.90 51456.00
-13.26 -2.74 -3.99 53080.00
-13.30 -2.74 -4.08 7266.00
-13.29 -2.75 -4.17 5027.00
-13.31 -2.76 -4.27 11256.00
-13.29 -2.75 -4.36 27609.00
-13.37 -2.77 -4.47 4289.00
-13.28 -2.77 -4.54 16966.00
-13.49 -2.63 -3.42 48633.00
-13.45 -2.64 -3.50 9655.00
-13.39 -2.64 -3.58 45048.00
-13.36 -2.63 -3.66 53909.00
-13.34 -2.64 -3.74 57401.00
-13.32 -2.65 -3.83 49037.00
-13.29 -2.65 -3.90 47583.00
-13.25 -2.65 -3.99 54427.00
-13.31 -2.66 -4.10 2349.00
-13.28 -2.66 -4.18 4821.00
-13.31 -2.67 -4.27 27165.00
-13.31 -2.67 -4.37 11487.00
-13.30 -2.68 -4.45 17150.00
-13.35 -2.68 -4.56 3215.00
-13.52 -2.55 -3.43 39384.00
-13.44 -2.55 -3.50 52737.00
-13.40 -2.56 -3.58 51411.00
-13.37 -2.54 -3.67 51100.00
-13.34 -2.55 -3.75 59015.00
-13.32 -2.56 -3.83 55368.00
-13.29 -2.56 -3.91 43740.00
-13.26 -2.56 -4.00 60757.00
-13.31 -2.57 -4.10 4209.00
-13.29 -2.58 -4.18 3790.00
-13.30 -2.58 -4.28 13504.00
-13.31 -2.58 -4.37 4844.00
-13.31 -2.59 -4.46 5295.00
-13.27 -2.59 -4.54 11722.00
-14.64 -2.49 -3.42 4084.00
-13.53 -2.46 -3.44 39037.00
-13.46 -2.47 -3.51 51431.00
-13.42 -2.46 -3.59 52691.00
-13.38 -2.46 -3.67 47498.00
-13.35 -2.47 -3.75 52351.00
-13.32 -2.48 -3.83 49896.00
-13.30 -2.48 -3.91 46982.00
-13.27 -2.47 -4.00 50462.00
-13.27 -2.48 -4.09 32700.00
-13.30 -2.49 -4.19 4203.00
-13.29 -2.50 -4.28 6069.00
-13.27 -2.49 -4.36 21550.00
-13.29 -2.50 -4.46 9633.00
-13.29 -2.51 -4.55 12777.00
-14.69 -2.39 -3.43 30029.00
-13.46 -2.35 -3.34 1101.00
-13.45 -2.37 -3.42 4357.00
-13.47 -2.37 -3.51 51416.00
-13.41 -2.37 -3.59 53725.00
-13.38 -2.37 -3.68 48333.00
-13.36 -2.38 -3.76 54216.00
-13.33 -2.38 -3.84 54799.00
-13.30 -2.39 -3.92 48434.00
-13.28 -2.39 -4.01 47645.00
-13.27 -2.39 -4.09 60242.00
-13.31 -2.41 -4.19 3970.00
-13.33 -2.41 -4.29 1139.00
-13.31 -2.41 -4.38 5677.00
-13.30 -2.42 -4.47 4061.00
-13.36 -2.42 -4.58 3864.00
-13.33 -2.26 -3.31 675.00
-13.47 -2.29 -3.52 52547.00
-13.42 -2.29 -3.60 52744.00
-13.38 -2.29 -3.68 49167.00
-13.36 -2.30 -3.76 48349.00
-13.33 -2.30 -3.84 58522.00
-13.30 -2.31 -3.92 47234.00
-13.29 -2.30 -4.02 45267.00
-13.28 -2.31 -4.10 48093.00
-13.27 -2.31 -4.18 50800.00
-13.31 -2.33 -4.29 24228.00
-13.32 -2.31 -4.38 4433.00
-13.34 -2.19 -3.40 684.00
-13.49 -2.20 -3.53 50004.00
-13.44 -2.21 -3.60 47101.00
-13.39 -2.19 -3.69 41677.00
-13.37 -2.21 -3.77 45130.00
-13.34 -2.21 -3.85 58175.00
-13.32 -2.21 -3.93 47324.00
-13.30 -2.22 -4.02 49674.00
-13.30 -2.23 -4.11 45350.00
-13.28 -2.23 -4.20 41329.00
-13.29 -2.24 -4.29 40011.00
-13.29 -2.23 -4.38 36512.00
-13.29 -2.24 -4.47 28754.00
-13.50 -2.12 -3.53 30302.00
-13.61 -2.11 -3.65 2477.00
-13.39 -2.11 -3.69 33103.00
-13.40 -2.12 -3.78 13020.00
-13.36 -2.13 -3.86 53837.00
-13.33 -2.13 -3.94 46422.00
-13.32 -2.12 -4.03 49965.00
-13.31 -2.13 -4.11 44176.00
-13.30 -2.15 -4.20 41233.00
-13.30 -2.15 -4.29 42205.00
-13.31 -2.14 -4.39 39049.00
-13.63 -2.03 -3.66 1736.00
-13.62 -2.02 -3.76 3649.00
-13.53 -2.03 -3.82 7758.00
-13.54 -2.04 -3.91 13923.00
-13.45 -2.04 -3.98 12266.00
-13.32 -2.04 -4.03 50557.00
-13.32 -2.05 -4.12 39531.00
-13.32 -2.05 -4.21 37792.00
-13.33 -2.06 -4.31 32197.00
-13.34 -2.06 -4.40 30252.00
-13.71 -1.94 -3.69 3657.00
-13.64 -1.94 -3.76 4069.00
-13.63 -1.95 -3.85 2355.00
-13.67 -1.95 -3.95 3434.00
-13.58 -1.95 -4.02 7803.00
-13.47 -1.95 -4.08 17327.00
-13.40 -1.96 -4.15 25632.00
-13.37 -1.96 -4.23 26029.00
-13.37 -1.97 -4.32 21114.00
-13.36 -1.97 -4.41 8838.00
-14.43 -1.86 -4.08 7128.00
-14.09 -1.86 -4.07 8646.00
-13.76 -1.87 -4.07 6496.00
-13.51 -1.86 -4.10 13272.00
-13.50 -1.88 -4.18 13142.00
-13.49 -1.88 -4.27 14656.00
